ply
format ascii 1.0
element vertex 712
property float x
property float y
property float z
property uchar red
property uchar green
property uchar blue
end_header
1.078553970892714 -0.26167180475123814 4.632987595908328 39 27 37
-2.3835629240979963 -1.1731697451452519 8.308764303442592 110 91 123
-0.6832380531149312 0.05555595633316928 5.965001165308401 170 155 132
0.8565970990245487 -0.018019723898099353 4.837857815532235 130 111 130
0.6749206363750901 -0.1913227642767046 5.0344027354705805 138 119 138
-2.411400803092965 0.8755443428346209 8.114572274486347 105 88 104
1.0372680991327299 -0.6061616624853049 4.709433474131913 51 32 38
-3.6866092602476526 -1.8786098564596945 8.82809876386087 97 111 150
-3.3825309412952786 -1.860114778597399 9.001380364561667 100 110 159
-3.340666578546508 -2.005560515495546 9.0676470545271 168 184 236
-0.7718556293438178 0.29629388328606365 5.855361059374221 167 164 147
-2.4402095738475915 -1.2161508693632266 8.334535289575422 173 190 236
-2.805842921368935 -3.0200536990312026 8.777271676322222 35 50 81
-0.7745738063026819 0.28038795378779746 5.858905621778791 109 98 102
0.41536019470060287 -0.3734560068978619 5.3406183661051045 78 52 61
-0.9006117164197044 1.225603349630545 4.6207762604624065 126 81 104
0.7651719460397135 -0.9902842072479036 5.037527423009814 76 59 69
-0.7051578684226765 0.057611575329712415 5.962145660692319 167 155 133
0.6393975966331119 -1.097903090126476 5.1747993109402755 80 52 66
0.6464268678968672 -1.7514130413158284 5.2374790700629275 84 61 77
1.0785539708927143 -0.26167180475123814 4.632987595908329 39 27 37
0.3783845223616395 -0.3590700899580569 5.36735294205535 144 121 141
0.9075969326283598 -0.04218412082596754 4.791294502931336 65 42 52
-0.03672619109812423 1.250586349273437 4.927734921900095 105 69 83
0.9885748257188975 -1.4236020906155562 4.837423268975276 128 103 122
0.5628240113626077 -0.004996973327775649 5.149062931718661 78 60 72
-2.1658506780933457 -0.929587194462228 8.034088627575308 75 55 67
-1.2004235339954274 1.2272102404633354 4.627187868009268 109 65 88
0.38397686280103777 -1.0626188876381457 5.43639137963189 88 64 80
-1.999220675118888 0.954433067234612 5.491654131602134 53 32 41
0.845984505841065 -1.3054321324711085 4.976045151927813 68 46 59
0.952570417529185 0.43359016871929346 4.701227007279763 56 39 45
0.9226373782694249 0.9076264980423471 4.67241597597412 73 53 65
0.8437150024721385 -1.372905658057238 4.984976016341763 130 107 127
0.3978432578899669 -1.2366208176719717 5.432946769251902 97 71 82
-0.8536011499944847 1.0818816998709426 4.650528378427484 77 36 52
0.44345086386272103 -1.2453442534650416 5.387989254925356 78 56 68
0.7422075674839788 -1.7567627693183192 5.1343999711290875 83 60 70
0.15454484636680774 -1.8618124615365945 5.759915917531757 77 55 68
0.7036854075275525 0.3730042156990494 4.952979947018721 87 64 72
0.9875325283652644 -1.4425914450947894 4.831727132038138 84 57 74
0.6639137169794099 0.0022000831176836187 5.035345672284379 130 111 131
0.845984505841065 -1.3054321324711085 4.976045151927813 68 46 59
0.7640017706281204 -1.7564828583532386 5.115628528722069 61 43 57
0.4153601947006028 -0.3734560068978619 5.3406183661051045 78 52 61
1.0398354186799459 -1.4113478970121653 4.791203806026138 41 26 47
-0.07786965145924389 0.32705369787892447 5.544610618248077 60 24 28
-0.7450351514643498 0.24792723634489838 5.873551086639066 121 106 99
-1.7411617193851745 -1.4777224258812158 7.675653510715356 55 39 50
0.8503519398236586 -1.2203259522689407 4.9592211942649325 85 59 72
-0.9794713350711427 1.0249000565244344 4.656672476436888 107 54 72
1.1944737109814951 -1.6223818489638742 4.633679496608022 73 60 80
-0.2589872908426485 -1.946913949790639 6.194009240188986 74 53 70
1.1325979404580222 1.1289380774280013 4.429625600782601 138 126 150
0.6168768613837272 -1.276929999660343 5.20252531285053 72 54 66
0.6205155562947597 0.9813230878810598 4.992640216147541 130 122 145
0.9075969326283598 -0.04218412082596754 4.791294502931336 65 42 52
0.9831018572982395 -1.604450953029521 4.860819454875907 55 35 46
0.6722182209736219 0.779279882974969 4.940032492306319 61 44 62
1.2688023053101076 -1.2469899472259451 4.517633626629665 83 55 77
0.9875325283652644 -1.4425914450947894 4.831727132038138 84 57 74
-0.6132568063667369 0.3398951351849777 5.804449085988602 205 202 193
1.268268348064546 -1.2573995972240488 4.512377571268955 147 124 142
1.065822777346245 -0.9859690783656925 4.707736274425243 136 119 138
-1.8333039479860302 -1.2915668899605541 7.750569087420984 74 52 64
0.5589193803937156 -0.7535313434212225 5.2223831572927235 62 46 57
0.6205155562943743 0.9813230878807214 4.992640216145838 130 122 145
-1.3282690911051382 -2.2041944853136908 7.328645316470704 78 55 71
-0.7331520683527191 0.05308232707070574 5.966639238386733 166 151 128
0.8132598220149059 0.13868303520093744 4.873791233023471 70 52 64
1.1459247377474826 -1.4202374178012307 4.671274744909737 47 29 43
0.8820798570234832 -1.393606472564184 4.950587040490886 60 40 52
-2.076273423027329 -1.248303876326324 7.984568381258071 52 39 59
0.6422505528119241 1.1675542205919536 4.942247238259076 116 107 138
1.014676534262249 0.4320222168047264 4.639968519481473 61 43 59
0.9260140506600826 -1.6173770358188735 4.92481592654958 121 104 123
-0.232350834938724 -1.9544230932551299 6.164715244364138 51 38 48
0.9596068912352087 0.19591067236783946 4.705463904678254 146 124 137
-0.15271784839554356 1.296928260207949 4.998988833259469 66 35 41
0.6411177462657904 -1.2596368051346902 5.190342642342087 124 114 138
0.8503519398061976 -1.2203259522585916 4.959221194224077 85 59 72
0.5156064693938586 -0.7348200871618967 5.268853172928877 124 115 134
0.5599677454080074 -0.39060181157923746 5.18450126142586 79 51 65
0.5546934670073985 0.9547881756371291 5.048713847367365 105 96 115
0.6709152996559812 -1.1670969718953867 5.159426566539525 63 46 62
-3.938699762504653 -2.0601180209112044 8.808182612777916 100 106 164
-0.129404948657973 0.5789204608838197 5.145633507640313 145 113 134
0.8658265577317213 1.121832139022848 4.713562172951176 111 101 125
0.840607841771874 -0.4221284229237515 4.89177748871756 60 43 53
1.211087277904997 -1.0449868598821506 4.551996472644412 79 60 79
-1.5444860679048875 -0.6853510053405725 7.392635990900488 56 38 52
0.0615474855254302 -1.9681748191734902 5.857833882946466 92 65 80
0.7554032289081303 -0.7653662297635859 5.026876488509649 116 108 129
0.6502000891625203 -0.22245622228569456 5.079704441775825 62 39 45
1.1399121262359082 -1.2053378051768637 4.659003746177973 48 34 49
0.4501440854548286 -1.7119557963340848 5.433691501186178 132 113 133
-0.2675351137315769 -2.0682249394749306 6.221608591747856 74 56 78
0.4655174138098255 -1.2554673483177674 5.368990740914976 77 50 65
-1.6786256719209873 -1.4823186574021407 7.627360310903675 71 48 56
0.8431837162683313 1.1050764937124862 4.728716911488659 64 44 56
0.30925786400439403 -1.2509369705508115 5.53333320870641 86 55 63
1.0278993402152912 -0.5840971763721202 4.717350584772661 121 100 119
1.1203093360302512 -1.4122880514530336 4.709209935956402 58 54 68
0.7556987796402959 -1.1739028242577945 5.066084655111411 42 28 41
-0.9794713350711427 1.0249000565244344 4.656672476436888 107 54 72
-0.3802773891359117 0.5370857339984428 5.577029525891999 154 100 116
0.8308017916974257 -1.186442994569252 4.9882020117772345 62 42 53
-0.15332900895124388 -1.9843528481079393 6.089010673194212 133 112 129
0.47886890338678695 -0.37625079213270296 5.281005196651317 137 119 143
-0.9170412173432516 1.1546533705687752 4.6458424811800425 77 40 58
1.1600370120184578 -1.2222477598105936 4.633177471713995 120 95 117
-0.6413075632230878 0.036085275920392984 5.963083800333779 181 167 140
-3.938699762828224 -2.0601180211053194 8.808182613597554 100 106 164
-1.7879775782903755 -1.4714301896566666 7.713495293200041 65 48 56
1.2349696076060852 -1.6294124516280912 4.598202388104451 72 54 78
0.7461295194405371 -0.5755921212388861 5.0157817465144925 123 110 128
0.5829350093711655 0.5374032932138642 5.0647052317788095 77 53 67
0.5916234702629626 -1.09113128299323 5.221274133011063 80 57 65
-0.384718911723963 -1.2725104044290074 5.620829988630846 96 55 61
-2.3913204439410327 -1.468794084492986 8.326677527821431 108 88 115
1.0682644896715354 -1.613166397339268 4.777945649272937 69 47 68
0.7705362475313652 -1.1584412590457027 5.054640420752081 122 99 119
-0.7709520852740962 -2.2628306192775067 6.76519785755586 55 36 56
-0.654572728749466 0.04122378308958106 5.960201157708247 158 145 128
-2.0330154200100785 -0.6281390761714066 7.8802509516885015 66 50 63
-0.6256883253364975 1.2381024393968023 4.639873559894593 154 114 141
0.8132598220149059 0.13868303520093744 4.873791233023471 70 52 64
0.828306007935048 -0.23657164341874387 4.8871143629056775 63 42 47
0.9074517423439639 -1.4653075024981879 4.918511712329709 98 68 80
0.3428243662364147 -1.519012881013326 5.523108446584209 140 122 146
1.0032412790954635 0.7730805381551052 4.607414457946273 124 111 131
0.5488135422801258 -0.2088104873046209 5.200424165270588 56 41 48
0.10398181796703665 -2.0891819846588136 5.834870731091095 83 63 88
0.8374739227448224 -0.020810345664205046 4.862608195841692 133 115 131
1.1846240333621008 -1.6233571963405098 4.648759355325532 71 58 78
-0.8845740911365889 1.2240470074181424 4.615949709550324 121 76 99
-0.6306072179944684 0.02142408465983471 5.962130247590386 156 135 118
1.0727934387323808 -1.0070942336165478 4.7015389078218615 121 108 126
-0.22664086956995508 0.056759827722191444 5.726037582969999 56 25 31
1.0667139174190379 -0.8383645325950116 4.701500047359186 87 63 76
0.4833344727842866 -0.753549795637659 5.320447601068828 96 74 87
0.6672566019902748 -0.9800528834846726 5.143064534563804 59 39 51
0.891909696123076 0.6283232350964968 4.74828684330672 120 107 127
0.8455783554931628 -1.3873404565424514 4.976583473689138 49 38 52
-0.17716602876366436 -1.2800622695831116 5.636410366825811 105 64 78
-1.592371936469034 1.4220561729844385 4.857839024476857 48 47 89
-0.518085912231238 -1.9210882780856522 6.377640546023684 41 27 26
0.9192410736383406 -1.4359361232364374 4.912528780098443 70 46 60
0.9929436333401511 0.7572335996199192 4.607080200898758 60 40 51
-3.3947806064299164 -1.9073484608892837 8.961412374491717 93 63 75
0.7147434771048252 0.9419407805360592 4.904354307438629 137 137 161
-1.4765395292464207 0.7589165286674873 6.497594206041808 67 34 43
0.36190694971729614 -0.3699399251228793 5.380002696195197 99 58 72
0.4785663535956823 -0.5468104195809781 5.289162159716846 68 44 57
0.6276367739431433 -0.005746519251778098 5.074675169873466 60 41 47
0.5902884467080045 -0.39025700681409875 5.166730831898215 49 34 41
-0.4375679578890523 -0.17646959784974212 5.752110000632492 109 77 92
-1.4492457185258778 0.8506340658917493 6.473398044417097 66 32 46
-1.2004235339954274 1.2272102404633354 4.627187868009268 109 65 88
-1.8888092039642155 -0.12234523117497974 7.680750899149335 60 43 62
0.6145706753652732 -1.0009199946357583 5.204418005155858 135 108 127
-2.15838921179136 -1.2420096830568816 8.07196641865349 71 52 72
0.9058156391007769 0.9121807526339579 4.687251457983783 82 60 73
0.578128644351734 -1.074939091115644 5.229853010551268 132 115 134
0.767627099959322 -0.800775362479288 5.003934614300242 133 116 135
0.8374739227441862 -0.02081034566409023 4.862608195839786 133 115 131
1.0420385878762457 0.42548058192456173 4.602631196384869 66 43 59
0.6535785518026562 -1.5511540379606366 5.199316083437731 83 62 79
-0.8153334318961971 0.6745561444626926 5.820281990338725 122 139 191
-1.200961895065794 0.7280973903631623 6.218837822423648 74 40 54
0.1217963108327991 -1.2027070537106048 5.7289480438425775 90 58 79
-2.7204720113634133 -3.0136387999292764 8.77033688396879 42 51 106
0.5805484074853284 0.5495230862917029 5.068718586250137 123 114 133
0.6191608093855969 0.8016210677403368 5.011014555231298 124 120 143
0.9553252979077632 -0.9928902496559898 4.8229873003793875 73 57 68
0.8160387717344252 -1.1850956110099835 5.002120988043685 63 45 59
0.6276367739431433 -0.0057465192517781 5.074675169873466 60 41 47
0.264787209195435 -1.5170693399327366 5.609283262352438 82 57 78
-0.6168040128508447 0.008033064468608953 5.9727841114385045 164 152 128
-0.4905099639057083 -2.055222042638858 6.328371022236533 172 154 152
0.7669107965259617 0.44863350963085763 4.905291174220202 40 29 37
0.7754145806212238 -1.1837893912407125 5.045489531075017 76 55 62
-0.6784911954251029 0.35452180984601017 5.844717215861614 124 111 129
-2.726447045138657 -2.384467449452071 8.700019365041431 39 51 99
0.8147628909351188 0.5024975556208054 4.797281312789789 76 117 207
1.0126206239465205 0.26802496026508904 4.632146376580452 95 70 89
1.0791648625593604 -0.8461548806255423 4.686856130936277 76 55 74
0.5546934670024114 0.9547881756326699 5.048713847345684 105 96 115
1.0753707987149288 -1.414955164430323 4.74711262890741 42 29 47
0.48210635198819607 -0.7241562189821192 5.317066931934949 121 117 144
-1.8896721488760861 -1.98898225180337 7.877880394618083 74 52 64
-2.713587031680875 -0.30517729899936236 8.485992023085641 27 34 80
0.433290843997279 -1.7055905302226975 5.45455692029614 131 119 143
0.6568780835185233 -0.11723130125035393 5.053238370287563 72 51 58
0.9729749758634988 0.26996172499378523 4.6787562886771 76 53 71
0.30493804649903733 -1.0449850183113107 5.517544200679222 86 63 79
-0.7934307533358809 -0.4798579657281411 6.171549393837568 49 23 24
1.0269531971384929 0.6533935973118671 4.587362372643852 88 62 73
1.0851396511973388 -0.08339968715868132 4.599297876402729 137 119 133
0.5095993106173652 0.1973242330458772 5.196937633710023 78 51 60
0.0615474855254302 -1.9681748191734902 5.8578338829464665 92 65 80
0.6640996912372713 0.9291484266627659 4.947464648167019 73 50 56
-0.9430234323811466 -0.27450393947368407 6.1636551002443385 102 69 80
0.8116563747350394 -1.7791949789439656 5.064751625063129 59 52 70
-0.45060872320565803 -0.3289600327822038 5.661106561785554 105 71 87
-0.8147697639311604 -0.42362650584968314 6.213282831201596 52 23 25
0.1865725202781139 0.3325517484289324 5.091622184646428 57 31 40
0.9036317526598915 0.24687561901241512 4.761593445545049 76 63 81
0.9929436333401511 0.7572335996199192 4.607080200898758 60 40 51
-1.299495093396157 -1.7775921505064622 7.250661788346206 75 63 87
0.5426269815511771 0.5480964689338378 5.104136639389078 78 54 68
-1.766091543764206 1.319898635406058 5.1535759801906815 72 41 49
0.8487039203945369 0.6306020322740215 4.792600143310574 117 103 118
0.07100080863925712 -1.1913326135891817 5.780830298803256 72 48 62
0.7524233656044769 -1.7413758010949232 5.1240406567105135 124 110 133
0.8078212121593161 0.808419279429569 4.824103932615184 140 126 151
0.5394020289660015 -0.023485524582266454 5.166750383443363 116 100 127
-1.2994950933961573 -1.7775921505064625 7.250661788346206 75 63 87
0.6396463173215846 0.6431154055284785 4.997549850003111 118 104 127
-0.6509743172468636 0.6678395736877433 5.663913246877527 70 42 56
0.09877179694181254 0.5860442768902687 4.90251506756354 62 34 48
-0.824936265339405 -1.0346329994510388 6.11716412288465 127 79 95
1.0398354186799459 -1.4113478970121653 4.791203806026138 41 26 47
0.5082686163712217 -0.19478150491866278 5.222955927445837 126 114 138
0.7719708005006078 -0.7835137817876109 5.006117446695506 84 58 69
1.1537759263522682 -0.051215877666572256 4.529775375984425 123 108 131
-1.9450315219704108 -1.7445240478884618 7.90908108913398 64 50 65
-0.4217631746742428 -0.35105788529903426 5.663596831229805 55 23 24
0.901774357537231 1.111879867474374 4.692504897225092 74 59 78
0.7623253577888617 -1.2201713096595381 5.050800745355015 132 119 145
-2.0732811827051316 -1.9608640797847166 8.061392875392958 89 66 94
0.5959157221905033 -1.525412946749997 5.2616502603177535 77 58 77
1.069338543539509 0.3961851971880862 4.563334913792932 131 104 119
-0.982101918016302 1.0605829969749458 4.65572572105646 102 53 72
-1.8490962495526124 1.4524635772744219 5.208407311466136 116 123 142
-1.4277440851011 -2.3364002021716783 7.442763338521968 71 50 69
0.6090680579042255 0.7062471044422481 5.0224238949595605 104 100 117
-0.6242597107251338 -1.0576234134097597 5.916013742663021 126 75 90
-0.5010861692725598 -2.053912591145601 6.3417363042361865 63 58 90
0.5540786128709704 -0.18773708944850265 5.188781276664905 136 117 136
0.5980463289308245 0.32748934800209023 5.090562702384376 121 108 128
0.7912260566970405 0.9459784923572254 4.80820444161714 130 121 152
-0.3288129384903296 -1.9079763517309167 6.258888922188167 136 117 139
0.18408624738566803 0.3595874323403206 5.086402793422465 61 30 38
-2.0231860405149105 -0.9860836161818622 7.8900424431038205 56 40 51
-0.15964360746554024 0.585286004221044 5.148020981060207 142 97 118
-0.48141253506853826 1.1443232601373556 4.8548683343324965 75 44 60
0.9657236672676427 -0.9701924697662465 4.813501070968654 132 105 120
0.5611669897719207 0.024835628076550986 5.143783718269716 133 115 139
-1.8466122159682252 -1.4775296357147347 7.789911340389063 65 42 52
-0.15964360746554024 0.585286004221044 5.148020981060207 142 97 118
0.4040174889289542 -1.7171164738054447 5.479482091266875 95 62 79
0.5424960904228567 -1.7375466595980866 5.353889476968418 84 56 68
1.2077097206888798 -1.6255992323775492 4.6296422992322315 68 54 77
0.6668546021166926 1.1761323964792323 4.929035462248097 107 100 134
-1.690934133267345 -0.47709821845290884 7.5142367849941945 65 42 58
0.7351212157778834 -1.4497050460217564 5.099090909558379 129 107 128
0.6055544737053871 0.3148884224345813 5.0851901195226015 65 45 56
0.6107999042465212 0.7952881569724578 5.020442438307248 69 48 65
-0.7802032700302702 -0.04453450733407212 6.024436016682799 199 192 173
0.7939200616170158 -0.783448087253218 4.985009982911755 73 50 60
-0.21454384870800494 -1.744588633404742 6.1254858291781815 95 71 95
-0.6168040128508447 0.008033064468608953 5.972784111438505 164 152 128
0.48344808771346753 -1.7139625203943525 5.399062576390164 128 113 132
-1.6592879250545258 -2.3085415566546277 7.684282980967949 60 41 60
-1.9450315222387564 -1.7445240482196511 7.9090810906185025 64 50 65
0.8509456893001955 -0.5951583646564875 4.895198323943871 70 52 68
-1.1476257302292157 1.2262645395531053 4.647884405721183 170 122 146
-0.24824430951279197 -2.1198211090742403 6.201565594965412 132 110 131
-0.7765422755250591 -0.4978060823505948 6.155624434427839 106 61 66
0.6693662858811178 0.30333061415001805 5.008142716106467 70 49 64
0.6360778511050605 0.14268898408644973 5.059355581364029 72 58 75
0.1288479716555937 -1.972174842519804 5.79343361292387 67 44 60
1.0851396511973388 -0.08339968715868132 4.599297876402729 137 119 133
0.5488135422801258 -0.2088104873046209 5.200424165270588 56 41 48
0.14222860184678612 -1.2957105033265288 5.714583437734647 71 50 67
0.5959157221588691 -1.5254129466997106 5.261650260166571 77 58 77
0.9199060702801036 -1.381482622905818 4.9083313958475525 130 108 131
-2.098928409512698 -0.9358290224746849 7.972510460529512 92 72 84
1.0126206239465205 0.2680249602650891 4.632146376580452 95 70 89
-0.51430659470099 0.04039102874879999 5.837769398336612 60 27 34
0.4918259902869273 -1.9329236606577942 5.407631402394699 93 63 89
0.6134032612278324 1.1046352004366593 4.980914449580492 43 28 33
0.3025693727118876 -1.7010880112794597 5.597567599541921 64 48 61
0.12452490126974619 -0.5146792725550209 5.654409414825324 64 44 55
-1.4277440851011 -2.3364002021716788 7.442763338521968 71 50 69
0.6418953139074308 -1.5487145938856803 5.21610192176643 75 52 68
-1.4084466390845625 -1.12290318910234 7.290978517056495 75 52 68
0.5362237761789602 0.6675344458582435 5.113641738994811 124 120 145
0.7287405374771293 -1.1708783764347708 5.086423312332691 57 40 58
0.889124042264303 -1.3824930223227752 4.93916967027536 128 109 129
-0.29024132835015515 0.7946650337980455 5.13669905365336 139 90 111
-0.07234888205450597 0.10882902293387686 5.522083425591157 134 84 96
0.6157695114158371 -0.21093030430822204 5.126102112706523 75 52 68
0.09981779933452932 0.7293147709260502 4.886391505124833 87 46 54
-1.85885608844355 -2.5960039765058327 7.919203668089243 68 54 69
-1.3971336076028562 -1.9753644277145899 7.3684813088467385 78 60 76
1.053055430038611 -0.8181491895006529 4.71990315678724 128 109 129
0.7939200616170157 -0.783448087253218 4.985009982911755 73 50 60
0.8160387717344252 -1.1850956110099835 5.002120988043685 63 45 59
0.7416120303256484 0.4271593289507581 4.915170286237192 119 102 121
0.9132875359769301 -0.7867534487984934 4.848381884665347 88 60 74
0.5006728053301363 -1.2602769856795721 5.329525139686732 85 61 75
-0.9382307035818251 0.016341775776809862 6.289729609833712 67 29 40
1.0791648625593604 -0.8461548806255423 4.686856130936277 76 55 74
-2.1658506780936433 -0.9295871944624594 8.034088627577267 75 55 67
-0.09383814185229872 0.6062491157989414 5.088114244427107 67 35 46
-0.17774505799252382 0.7595066175086688 5.170785395238417 90 50 61
0.6348249194763902 -0.5957562251782318 5.142692632287744 56 50 62
1.0041070919463708 -0.7940239565598729 4.760578533044965 64 46 62
0.8228765090274938 0.15597782537210242 4.869479171061096 88 67 86
-0.08144445910579001 0.6165372661879563 5.075461832078883 135 88 104
0.5658238396801377 -0.3753550734203935 5.178501319994159 134 115 137
0.7938061710713687 0.15849820980708187 4.886085743697259 75 58 76
-1.3105427405862422 0.32825339657569147 6.8144200040993335 51 22 27
0.5954539867571709 -0.9504775851937165 5.239559693229299 55 34 43
-2.0935050599500538 -1.2309489246477037 8.000797613634626 135 118 136
0.7032313916215642 -1.8275709919461343 5.170601190796187 155 136 166
0.016822870792003373 0.17668110628772637 5.4598244301196655 52 19 28
1.043236926497026 -0.848502872876877 4.720450427809958 132 115 134
0.8705244819679034 -0.22255170301856583 4.849902516270098 130 111 130
0.635075254236212 0.9607055020109784 4.984761934923871 109 105 128
-0.43705860125462453 -2.1046205637322095 6.271518998338484 38 19 15
0.18852023790263123 -1.60670449243357 5.698274056940918 101 71 81
-0.4182715359043745 0.34679553783832695 5.714251076211602 130 77 87
-1.4273317764004547 0.778862730605028 6.447080389707229 44 38 40
-2.23042948226969 -1.588326701021606 8.177407497295304 126 107 126
-1.4219152433814686 -2.493982660263554 7.452561421277102 84 56 79
-1.24133574156507 0.49543830561227564 6.73078931833482 66 26 34
0.04392089419852524 -1.7787728879458145 5.855812359579291 100 72 87
0.7951608268033967 0.7711378583884005 4.82326164180276 135 111 127
0.6432690698303042 0.6583077272271024 4.998817290000626 58 44 59
-1.7267342762890951 0.8771876164493757 6.749236604940895 55 29 40
0.4183119186628612 -1.2454946520294 5.416041462427958 82 54 68
-0.8091390163726968 -2.100639213680076 6.79192160509217 80 62 76
-1.8366482173464167 -0.3075918011371082 7.644798020524374 57 42 65
0.8834622629604355 -0.4393273388890609 4.866303208129177 94 69 75
-2.736173217396583 -1.1800167848233807 8.590808506169559 51 57 91
-1.1635654312366877 -2.063515314054503 7.152920173288296 84 59 81
-1.6154850207046647 -1.4833486832366454 7.526486058108606 73 56 64
0.6549619378362724 0.321177545798897 5.023454585781524 121 111 135
0.9914936672502912 -0.9893423536046305 4.790192869523894 54 42 52
0.14463590310618382 -1.973361064400669 5.77554534792556 60 43 62
-0.08563206581597459 -0.03791824163552118 5.579995549223955 59 29 37
-0.5431300959798265 -2.0913517073581778 6.390250654310523 47 56 71
0.7678214195463304 -0.5875556526676047 5.00146941172673 66 45 50
-1.2561930848216454 0.5267046735068937 6.740164023388158 53 22 30
0.6144822347639446 0.960253788405117 4.999382542366242 116 106 130
0.9911665233569872 -0.038964670163181114 4.709366622942539 69 48 63
0.9055095218495316 -0.5965289585232869 4.855030523281182 78 53 72
0.5841128122291475 -0.7304781003992264 5.196374242820555 128 115 133
-1.8787848140749717 -1.7606206183529878 7.846406494726309 72 51 70
-0.48898294433756434 -2.120179785451225 6.330221809339189 61 58 89
-1.479149184678165 -0.5730898226534632 7.3115778220935805 66 50 63
-1.7741482083397668 -0.14344260295761063 7.56828871495832 65 49 75
-2.2049144192961787 -0.06330275650608341 7.988800365804541 126 108 130
-1.287618671185785 0.4482009065049233 6.743602756558981 50 20 22
-1.715693522743738 -2.6097650864658584 7.779408496734821 92 64 87
-0.03493006501080239 -1.9593143968555613 5.954819817803969 93 67 80
0.7676581747853636 -1.5818465435438738 5.088113301431819 78 64 77
0.2976291032706352 -1.1223097849518802 5.535345254405127 85 60 79
0.7232348063802015 -0.23701358465372818 5.024090616684968 51 36 41
0.019835868641716492 -1.481352448528622 5.852296051204897 83 60 78
-1.645438653950453 -0.3386690505450435 7.459378859004082 75 52 68
0.6903276205299567 -1.1514206219115237 5.117202629416158 126 113 133
-0.4926520004886048 0.3552259784966333 5.788835705437178 125 74 83
1.2077097206888798 -1.6255992323775492 4.6296422992322315 68 54 77
0.7505170873802768 1.1248783516271885 4.861922546312659 50 32 44
0.7289567223081347 0.9254532151835734 4.894056762566894 79 62 81
0.6717154256847602 1.1396637669293606 4.925901780236375 99 90 107
0.560176968923933 -0.22769470578579817 5.16854265592743 136 106 116
0.5686193324911096 -1.7425082859022325 5.313121385174735 77 59 81
-0.8047885152330327 -2.0358802017516076 6.770297116418281 124 103 118
0.7960087863600196 -1.5866564766898126 5.059504682021291 74 57 75
-2.239067834772436 -0.8154788959809944 8.099073808284917 77 58 77
-0.27791407459568773 1.260771492645689 5.008655844791674 103 72 90
-0.982101918016302 1.060582996974946 4.65572572105646 102 53 72
0.21056610915497975 -1.9724906114507088 5.711427009596646 67 41 66
0.2234736830629246 0.4718424095981447 4.964967052039074 158 109 128
-1.6371560538080674 -0.8137865372023765 7.493190328507611 72 50 62
1.014676534262249 0.4320222168047264 4.639968519481473 61 43 59
0.6672532508928681 -0.5841343573944688 5.119272938346597 59 43 56
-0.004174247375060951 -1.81214828360887 5.930856648185236 138 123 144
0.2715879288783096 -1.5036950327621073 5.597794742812125 130 113 132
0.33826202862706584 -1.5412987724172231 5.530411881822815 101 71 83
-2.023186039811563 -0.9860836156489813 7.890042439417237 56 40 51
0.6107757766566831 0.5354289496811356 5.04077471722634 73 56 74
-0.522676676257156 -2.039309547711376 6.361811331848409 85 98 114
-2.7740984575498384 1.4619850106410246 5.35247918101386 113 118 138
0.9096189026577732 0.15949172037431278 4.774986542120186 117 109 124
0.32947390429206846 -1.708500886661252 5.564334260548494 61 43 57
0.5418606255373477 0.19076107819853347 5.157594104601877 80 56 69
-1.7802466393140666 -2.0983072079656293 7.770526250977181 134 117 136
0.0998177993345293 0.7293147709260502 4.886391505124833 87 46 54
0.21851222180199154 -0.9308558796476856 5.597961988527035 144 117 134
-2.1801510493454184 -0.07251442902996699 7.9795333246312365 69 58 75
-0.36356553944742204 -2.0409218424246447 6.292617239442161 56 39 57
0.816705404825265 -1.74872738865115 5.056208196858247 116 105 135
0.6622605734907802 -1.7487846490309165 5.222953808402906 68 49 69
0.7351212157785517 -1.4497050460299499 5.099090909560668 129 107 128
-2.188421632781838 -1.2511027068206182 8.10232764854101 138 114 130
0.7773210662652426 -0.13697498682846346 4.936757361433353 80 62 78
-0.8199406626397554 0.7406103434977912 5.843180279391816 74 42 57
0.732468161895266 1.1959004970103555 4.8354005955173855 73 61 73
1.0133298651578155 -0.9827154338845075 4.766560679380135 125 108 127
-0.019162286653294672 -1.9607107281052412 5.931191407602445 87 60 75
-1.6544490948729813 0.8177705738827162 6.675257662189258 108 77 82
1.0449660301260715 1.1272983748750331 4.549429614171371 117 104 121
1.100182324545526 -0.6130624690541964 4.638002003098261 61 43 55
0.6886673269334438 0.8320761212134439 4.921216280528009 130 115 136
-1.3971336076028562 -1.9753644277145899 7.3684813088467385 78 60 76
0.6080687843206437 -1.8438288641070204 5.282260784850479 80 54 79
-0.09767033748486469 -1.954441908808887 6.030862747556589 71 47 69
0.8736487579743906 -1.7402288347555621 4.988726864632562 120 107 133
-2.0734255030857676 -0.9958497953271991 7.956945370528266 122 102 111
0.6408437218132456 -0.9749954229301896 5.157613842958932 77 53 67
-0.7978289166038566 -2.020523999558813 6.772013065906324 66 45 62
0.8213258711357515 -1.099677907851742 4.9851081222786915 134 119 140
-1.2192761116022872 0.11197426578285848 6.745303731223147 56 26 34
-1.493679090201174 -2.1999347247565644 7.5055721205782415 76 54 67
-0.13791347384175445 0.6132638436008431 5.148249532353888 63 36 41
0.8856700722163563 -1.3083403807374707 4.934028021023649 71 48 58
0.12863975159248592 -1.0422875545052859 5.703125361177801 90 60 70
-1.3329503040733492 0.9631627679625355 6.229783901275028 75 56 62
0.5918194461975683 -1.539820452277182 5.258088238587369 123 115 138
-1.6652410532172222 -1.2521499992030047 7.566683364148878 78 54 76
-1.9946609660916514 -1.1002822811138124 7.891507123225622 71 48 58
0.8132570540619699 0.5806816338967223 4.795433901288478 80 116 210
-0.1511972338274892 -1.6608142248255924 6.049491331431182 93 63 75
-1.0049479463920787 0.8486707494945349 6.01714768135112 86 42 57
-0.06934429116657988 -0.16087832873917507 5.577824399121167 63 28 35
0.830521218002141 -0.6011931455733593 4.934627554948997 60 47 57
-2.0216690077244905 -1.9596965708531127 7.9984567231638835 88 64 88
-0.08911897676840451 -1.9384565065015127 6.018358324952291 135 120 141
1.1554018243424038 0.20666363913320301 4.495187683346999 94 74 86
0.7291487305770408 0.29955227882989666 4.939159493143108 75 58 77
-0.4182715359043745 0.34679553783832695 5.714251076211602 130 77 87
0.5252442910360694 0.8594147540112194 5.081228784201866 69 36 43
-2.1583771450450513 -0.4370982971589208 7.992908954320578 63 51 65
-0.6808333114692102 0.30769884080156135 5.879605246395228 98 79 72
-0.18944832474750983 1.299270725425244 5.026781310597156 51 36 43
-1.0991723322885885 0.9148185736561822 6.004643343728238 75 49 60
-0.5197627848418251 -1.9530239049707454 6.357124197698929 33 30 41
-0.21903426629926692 -2.0549585839484616 6.162793393012308 71 47 61
0.5469289078625118 0.48911643647458286 5.124624550985956 127 119 143
-0.9170412173432516 1.1546533705687752 4.6458424811800425 77 40 58
-0.17376686939593683 -0.007121393809545932 5.665523021585296 62 27 33
-2.212547130342768 -2.896044498450328 8.30568348903107 92 68 84
0.22705934663937152 -1.2292094039325994 5.625547773570639 97 65 78
-0.36989895266410283 0.7833605181272342 5.373687374729763 78 47 62
0.8651330778708864 1.1056689444753955 4.712108012045236 70 52 64
0.17704671348127068 1.224735368992232 4.719353820123764 127 74 94
-0.03493006501080243 -1.959314396855561 5.954819817803969 93 67 80
-0.4928172742027822 -2.161121744183295 6.330353366756171 153 144 127
0.6568780835185233 -0.11723130125035393 5.053238370287562 72 51 58
-0.9984010142413497 1.2157763326812967 4.419240901709246 100 56 69
-0.11926927383461906 -0.7253162618941107 5.505865731443152 58 24 25
-2.073281182695238 -1.960864079773011 8.061392875345497 89 66 94
-0.48175012327636685 -0.7565299302355404 5.735179396668728 62 27 33
-0.016601252768920306 -1.8286173024077996 5.9489150656456555 80 58 71
0.0661315051192043 1.0802808845096161 4.871023327789733 83 41 51
-0.8102169659973898 -0.45096737840200585 6.1979490760567835 109 63 73
-0.7339267772934797 -0.18356242275666776 6.07510428351142 77 40 48
-1.604766126959333 1.413794372380237 4.842040081462338 177 202 255
-1.4219152433814686 -2.493982660263554 7.452561421277102 84 56 79
0.95328746857943 -1.6006737675358147 4.89240241027771 69 48 67
-1.5703098779020592 1.172948676803856 5.048217281828938 81 47 64
0.8217200765949448 -0.9738115459929223 4.989653622655114 125 115 139
-0.06855210537573887 0.7001246296155147 5.06772965890304 66 33 44
-0.1943622335297229 1.279172075742666 5.034071749878932 66 47 53
0.35722277491696713 -1.7910510382021203 5.534996148770416 72 53 75
-0.8238889111327605 0.6979504489781259 5.843080811423545 110 67 87
-1.8366482173432348 -0.3075918011363828 7.644798020506879 57 42 65
0.3569887254579938 -1.0497267424989647 5.4507386026863855 78 54 67
1.0976114620579336 -1.4586077916965252 4.719967543895559 85 62 78
-0.6042606884874776 0.3218548150891887 5.808053417903477 112 91 90
-0.709883151118432 0.3108154844504345 5.853680012135922 174 162 148
0.9132591228618867 -1.2729740705505992 4.902928265309413 111 103 127
-1.5705836028589872 -0.5069952928046432 7.406640005300462 70 52 66
1.1089367472186162 -1.0848113228019012 4.661953632455505 98 71 86
0.21851222180199148 -0.9308558796476855 5.597961988527034 144 117 134
0.7118714191207919 -0.984977553375732 5.094536771112065 84 58 71
-1.8549364011719889 -1.0963593621580217 7.753002184377397 77 56 71
1.1089367472186162 -1.084811322801901 4.661953632455504 98 71 86
0.9991335919890655 -0.8269862088871233 4.786457985653445 84 61 71
1.211087277904997 -1.0449868598821506 4.551996472644412 79 60 79
-1.0991723322885885 0.9148185736561824 6.0046433437282385 75 49 60
-1.8138616439265418 -2.1257898245635567 7.814855130547212 75 55 67
0.657706491093312 0.47457968021708186 4.993099729506902 130 121 140
-0.7611762197105848 0.0032307291569320124 6.001467144288217 205 194 174
-2.0216690077244905 -1.9596965708531127 7.998456723163884 88 64 88
1.3135883144443923 -0.8248983599057572 4.440040944651159 66 42 58
0.5911341830920128 -0.00372106527671314 5.100750866353015 78 55 65
0.6038382068570634 -0.3786040300129897 5.150614101953915 119 104 127
-1.6891004353867223 1.4197447344558256 4.864743112188846 181 192 254
-0.5691208002792193 0.5538397240750251 5.7302302383889465 155 103 116
-1.0707360234520877 0.7339155992116291 6.103534898252383 73 39 55
-2.2457123389755766 -1.9274230924957791 8.22803421020325 89 63 76
1.1632679888864077 -1.6236092102334974 4.677040515493041 72 59 85
0.5271185848524039 -0.7440954673221343 5.267177264007254 63 50 67
-1.1736751560320673 0.8189075514390358 6.195824496188331 76 38 53
1.0685484021428155 -1.6169095712714459 4.7776896365201 86 65 84
0.33452814961835 -0.9127161955923172 5.477800725999412 85 59 70
0.1792708851899928 -1.9638710239311876 5.735896285311484 125 116 143
-0.6119402610364989 0.3557669258402064 5.7951979051064475 49 23 34
-0.44666360877153594 -2.134786134196049 6.2782847187250965 112 145 154
-0.7805240565788517 -2.0968558419427654 6.754734560815955 77 59 75
-2.324073543158596 -0.4148805169317988 8.143482608238044 60 46 61
0.9299066819698443 -1.5994388318505715 4.92789724485209 50 39 56
0.6469712167434578 1.3968945158200694 4.752904363818699 105 121 136
0.7010810579182981 -1.1079771148170945 5.11012334452387 85 62 78
1.0354075125887345 -0.7944040983875704 4.718770952961923 67 44 62
-0.9717240980424074 -0.8439521438637032 6.220276254543835 120 72 84
-0.07385522858369566 0.08615179249348406 5.5326384048548665 73 37 47
-0.16027590141181697 0.7295691654317114 5.157590636322941 64 33 41
0.725842202587157 -1.1354702747007455 5.0892622439041295 123 104 123
0.7064777465376086 -0.14584109713827986 5.0120837351634195 74 58 71
-0.5940261504797668 0.35278606318668393 5.802305568784899 132 118 109
-2.0853474459106964 -0.983734038476005 7.971769364043406 68 48 60
0.7192117010601633 -1.1659742163161895 5.101428375474417 68 55 65
-0.6831147865646326 -0.5571436481439344 6.065022675469644 55 22 31
-0.514279673133336 -1.9720648387313864 6.3482056217184395 16 34 48
-0.49462360678066786 -1.4883960922289101 5.918321230674973 144 91 107
0.4205658623960086 -1.8473464132892565 5.467877254566296 100 75 97
0.7118714191207918 -0.9849775533757319 5.094536771112064 84 58 71
0.8422647542564217 -0.7811413060741793 4.925780357831087 128 107 124
0.843501195509181 -1.1461233901774208 4.962692133986415 56 43 61
0.7856192844398787 0.15892592920884627 4.909569308152811 76 53 73
0.16417829235032466 -1.2937235655400607 5.668964925228473 115 104 118
-2.0420061899178754 0.9261704497201337 5.492304093626796 134 154 191
-0.26775199147807777 -2.2012591782419135 6.228770426562527 94 66 88
0.21376701628930747 -0.9127174585579688 5.608953564645314 87 61 74
1.1214780581124135 -1.0179092164194727 4.650213279657508 62 48 65
0.8706200911119363 -0.40508185471793307 4.86825645130056 135 118 137
-0.5579702614905367 -2.175943169214295 6.417557976323595 62 35 42
0.6924643534332845 -1.1684036057570597 5.129802521659997 60 42 54
-0.4946236067886003 -1.488396092536325 5.918321231818122 144 91 107
-2.0882006747674704 -1.7384812865239865 8.058604932893898 56 39 58
-0.5108432542668145 -2.0660195063366973 6.3567469113875505 136 154 200
0.2314544099607308 -1.9737348768166434 5.693411810089378 83 58 80
0.43724880142385053 -0.7059675420676422 5.3458856497463065 132 120 144
-0.73631278141799 0.3282418982217534 5.844396038113312 161 153 142
1.1532702254286578 -0.06474993748314632 4.53744556845071 65 49 60
0.48217230481652573 -1.7283441537959707 5.403831372593647 91 64 83
0.04699567297955445 -1.3178187284921592 5.807881087980871 139 119 146
0.20747210497743981 -1.3447546206649563 5.653810467796877 73 56 72
0.17467841369691672 -1.5132986406184963 5.702830798345073 98 67 83
0.37303899850698363 -0.6868444884545393 5.392837203356093 78 63 82
0.9312745487182099 0.662215651215884 4.692023511599402 71 54 70
0.7650540036613677 0.8082813318312957 4.840270668612815 140 124 151
0.403528568744242 -0.5385915917887147 5.3729005047563145 81 59 72
0.21056610915497975 -1.972490611450709 5.711427009596646 67 41 66
-2.154893331547723 -1.5707784677161116 8.094381344248188 76 61 82
0.7816287054599776 0.35250554821543834 4.875093090075208 149 127 139
-1.601119735576543 -0.8208984564584553 7.467443930665304 74 58 68
-1.999256482725883 0.07988114229642021 7.763765790045973 46 34 56
-0.9884037749991522 0.818838433631762 6.00137972608673 75 39 51
0.6962822733858836 -1.7460852324832654 5.178495223841383 70 55 74
-1.806309552384202 -1.8989326791375576 7.796941435151849 69 54 73
-0.43448567438553015 0.43514992939195085 5.72134482390367 62 22 31
0.8482707264756896 -0.40435155588980426 4.894945278537973 136 125 142
0.6943097686354213 0.6336772352362582 4.942759079132494 64 51 69
0.6173576987378239 -0.7365813894887767 5.171370956578028 125 116 133
0.06146419667490369 -1.1756751968349985 5.781467013572731 130 112 134
0.5708626689165177 -1.2720002666062842 5.258664153763287 78 55 65
0.397543520368897 -0.7126066622541488 5.392231901225433 68 50 64
-0.515697156384087 0.6742351512016526 5.543415460023505 65 33 46
0.6999152371294827 -0.22229858597376215 5.049805678107985 48 43 49
0.7184407294852205 0.6270663027997255 4.932769624311067 113 108 131
1.0018411532448344 -0.8088787300694882 4.7563078382292625 114 102 122
-1.6154850205424671 -1.483348683012607 7.526486056909414 73 56 64
0.49519298258039707 0.6049881381768485 5.1406470500422445 60 38 51
-1.7579585821395114 -2.2215801859599047 7.774725588494757 74 56 72
0.6690850005316747 0.4712629939699127 4.977841311315139 133 126 144
-2.1819154318846103 -1.5695976967092267 8.11992821559175 75 58 76
0.7003441347477771 0.777274253506235 4.89360052180159 68 52 65
-0.08702747288210237 -1.6707269495552133 5.993316019818557 95 62 79
-0.24059353473548098 -0.36456666033785257 5.782983105727172 94 69 90
-0.9382091580566859 -2.0878717046752717 6.916166191779572 84 61 77
0.8999005278277825 -1.285050214181775 4.896955179096955 126 113 139
0.6764519408502143 -0.7604949724467062 5.112582359848308 73 56 72
-0.24577174787516318 0.08102919858789563 5.734727853403786 60 24 34
-1.0913518363477424 -2.0504289269951315 7.061891490991856 129 114 135
0.0661315051210852 1.08028088451274 4.871023327801976 83 41 51
0.7029796553638755 -1.095556409811808 5.105385808471166 135 115 140
0.5708626689165177 -1.2720002666062842 5.258664153763287 78 55 65
-1.5951227308099276 -1.8039770907691832 7.569274710137032 70 52 64
-0.9956244856178557 -0.8491448725340814 6.236544375217349 126 80 93
-1.4623477046158302 -1.8036711213195606 7.4265468970076505 71 55 68
-1.1304244888369441 -2.4177340586707268 7.146160113143759 76 52 78
-0.7066389167749151 -0.5339388314223701 6.089521077506198 48 20 19
-1.7969052390381228 -1.6327959649946389 7.736639290866234 88 58 68
-0.7349652988862944 0.29970010269833464 5.85338228613953 117 104 113
0.6935302322913799 -1.1373744267521673 5.126911480525905 85 61 75
0.3899486290692457 -1.8064894062029664 5.49841802745629 96 67 87
-2.0763760824910857 -0.7650604623991337 7.940186710835415 61 45 56
0.49492182140805946 0.494789315816994 5.173079341955959 127 117 144
-0.5487867560358196 -2.1114840759935785 6.398892500211181 164 147 129
0.18172528271983887 -1.4338845106626559 5.682356246036877 95 64 82
0.5279715364951616 1.2949016157871687 4.9294542054997414 55 53 67
-1.7741482083409519 -0.14344260295805347 7.568288714964259 65 49 75
-0.6120653477106719 -2.061181949363207 6.468761605363016 146 148 173
-0.7098557056287478 0.7885872827235859 5.720653934932372 75 41 55
-0.5531619066344781 -2.1574545711884543 6.405255253999507 205 190 167
-0.7118971170993447 0.32515315863150784 5.838907663038576 51 38 48
-0.7934887612614107 0.7024908671326665 5.815028305868939 76 40 52
-1.439522091934949 0.9763214656056054 6.327176768149799 77 48 53
0.23145440994679814 -1.9737348767851375 5.69341180999997 83 58 80
0.45387321633839933 -0.3703861210945679 5.28917810094261 141 120 139
-0.5067807018323275 -2.2255518560575545 6.3493118398339705 192 184 165
-0.07385522858369567 0.08615179249348406 5.5326384048548665 73 37 47
0.8440408257977486 -1.1589654380469405 4.959162583759731 129 112 131
-1.7506135317185978 -1.6318474316372353 7.702252298352358 74 51 67
-2.0942395233426865 -1.9432371291170194 8.081016046362633 74 60 77
-1.5300817558828121 0.5879584386741492 6.834192451376581 138 94 107
-1.5516201674873265 -2.4898174480211828 7.590541482497457 80 56 72
-2.013541318920177 -1.7487210299959688 7.997017490183258 73 59 74
-1.5612383182584342 0.9135943636599618 6.580303912750381 67 34 45
0.009179899559006633 -1.2982594660663027 5.805588755560801 62 31 36
-0.6164834161751467 0.6914632893540436 5.639316127104081 52 45 53
0.6641763246979872 0.49574434572005094 4.978446020470674 137 115 127
-0.6109821830177035 -0.8676609740956348 5.839296373868177 126 76 88
-0.09124594900151581 1.292110332695437 4.928787790300031 63 40 48
-0.5715458816150297 0.23224993986438908 5.907056972952061 125 113 99
0.7461861453870698 -1.5775999495699817 5.117496372360602 78 56 69
-0.7934307533358809 -0.47985796572814104 6.171549393837568 49 23 24
-0.8880621332856378 -0.33906269213352536 6.248387245174439 126 68 80
-0.6590518470799981 -1.054626363959594 5.935770612033033 127 78 97
0.9401001771035062 0.16118676790847258 4.74263807395382 71 56 75
0.5575910586972722 -1.2669170040361577 5.2838355837689575 85 61 75
-0.5964330295574873 -1.3229697890450283 5.71169360932195 70 34 46
-0.7307504278268726 0.8227354924854138 5.738349782520983 92 48 65
-0.38935469387366856 -2.029504956112385 6.308635595579452 102 84 108
2.426001067279713 1.3669977528753183 4.744556594758389 82 71 101
-1.946885426119568 1.2287363519161039 5.4258481447393185 75 41 58
0.10072773029925983 0.8636819263512436 4.788799655459647 83 47 47
-1.5365549523535125 -2.188247745035741 7.542682216078373 80 58 71
-0.36989895266410283 0.7833605181272343 5.373687374729763 78 47 62
0.259980263683178 -0.7025030121692823 5.532577217720336 84 53 71
0.7557024802728272 0.6475266150287711 4.874101979144192 126 122 147
1.115277143379077 -0.8539453217796358 4.645313023346044 95 69 94
-1.571505410165591 0.7259194593045014 6.7229436819787685 73 51 54
-0.7078438877870772 -0.262113604431113 6.050661773829778 131 115 92
-1.7770807253494794 -0.3023524838399456 7.601937621414721 120 103 122
-0.5283746654004072 -1.9706517741990428 6.365835857474829 62 84 97
0.9149716823292294 -1.2580274360327315 4.894867851212344 59 46 64
-0.26775199147807777 -2.201259178241914 6.228770426562527 94 66 88
-0.6335225797502265 -2.099225094457264 6.4838521433362715 189 174 151
-1.0684023946979349 -2.0275645547870518 7.037603530432663 82 58 71
0.9299066819698444 -1.5994388318505715 4.92789724485209 50 39 56
-0.8776493008595714 -2.4286030952705806 6.889793780866342 77 53 75
0.6529856694323476 -0.9559070518271052 5.150627156179277 129 117 137
0.6717154256925705 1.1396637669369345 4.925901780267399 99 90 107
-0.9408928964705666 -2.340777201909289 6.9436972535541575 59 42 60
0.6395185648743175 0.6810176268392428 5.011115129507593 113 108 130
0.4875018742327469 -0.210893644601771 5.25158073429585 81 53 68
-0.6182904584541211 -2.0068674880450357 6.469475980987473 117 103 128
0.7247934681194986 -0.0196473478850976 4.974776930893791 81 59 82
-0.4400847661552247 0.6476140110645152 5.460294849616344 60 39 48
-0.3658187547248739 0.6543306138405353 5.37778740061517 127 83 100
-0.7307504278268726 0.8227354924854139 5.7383497825209835 92 48 65
2.4322306190961513 1.3358077859985762 4.752382963839178 84 77 108
0.7527259126202092 -0.4361334505350763 5.003915346365838 57 41 52
1.103701037897444 -0.25518347945242387 4.602563992901375 109 90 109
0.038475366554573516 -1.6857178258979442 5.871544729067988 95 72 92
0.21500852957196426 -0.5241322465755011 5.571458019925596 88 59 77
-1.4184698625127197 -1.920873722584222 7.3890005590820405 73 55 77
-0.12002128025765174 0.6147618001718601 5.105175714248668 63 48 55
-1.3867102335849248 1.0916060655137947 4.869175735413169 87 45 65
-0.46704510970322444 -0.12609714009215028 5.811756962855613 51 29 31
-0.8060259735406187 0.2087601039949057 5.937283867089181 180 177 186
-0.0604671649903947 0.15336960937535143 5.509256274545103 123 71 83
-0.4562493727366574 -2.195865628829264 6.294648283986247 164 143 126
-0.36356553944742204 -2.0409218424246443 6.29261723944216 56 39 57
-0.9585941073225865 1.0056504769609118 4.659540584757967 104 52 74
-0.4851891277923059 -0.8861472733109487 5.707854896069783 72 34 47
-0.2570010804879488 0.6597400730808479 5.268963818297317 75 34 48
-1.0668446839650831 -2.3593095038236394 7.069752088295227 75 54 71
0.7702017314525437 -0.7617590249669376 5.009326901229237 68 55 75
-2.0882006750800417 -1.738481286900752 8.058604934497687 56 39 58
0.6256241768473559 0.6625305323432509 5.019176206071349 63 46 64
-0.9707086062174203 -0.1026225274711853 6.300113134805486 101 76 95
-0.21454384870800497 -1.744588633404742 6.1254858291781815 95 71 95
-0.5042465907241537 -2.044072363617153 6.34372648053227 135 119 129
-0.6836070746640984 0.14932443266036172 6.030059245844936 75 52 38
0.6893605888115839 0.46092498853626346 4.976093282133656 122 105 124
0.72323480637907 -0.2370135846518689 5.02409061668011 51 36 41
-0.4900198040514714 -2.1434401532642853 6.327182498731991 54 48 60
0.6837566202000442 -0.812087705382622 5.101895303884974 67 44 60
-0.07254894425045123 -2.0809024528974547 6.024262803753935 132 114 136
0.6015573915847934 -1.7449452196884936 5.270119601194743 117 105 119
-2.2294173878686183 -2.562293659531722 8.296394939174554 84 66 88
-1.800521901308956 0.8132634147004197 6.828609456965638 45 28 38
0.6298870566990334 0.9812661071985053 4.9879061545562235 72 58 84
-2.720560540911102 -1.7662463439411178 8.630208665308814 32 46 95
-0.43757136176934935 0.02704954629286672 5.760589899744808 63 23 34
0.7948597387721643 -1.3843560622391389 5.0460564210370995 70 53 72
-0.21703850183223738 -1.9541965418958362 6.150062257534888 133 116 135
-0.982101918016302 1.0605829969749458 4.65572572105646 102 53 72
0.5203849946069886 -0.0015542781627497127 5.194472666086669 64 50 63
-0.08553618638256764 -0.13227211625758295 5.591687517612111 58 26 37
0.7517768417787868 0.17035141318547145 4.934863246700548 75 52 68
-0.9382307035818251 0.016341775776809862 6.289729609833712 67 29 40
0.6015573915847934 -1.7449452196884936 5.270119601194743 117 105 119
-0.5493992945486341 0.6131111339990478 5.66914664143062 113 60 70
-0.051603724993712866 -1.5486403870593384 5.937915033073333 102 71 86
0.6786433381486382 -1.1064456472778808 5.141518775772881 75 53 66
-0.7632644303524111 0.23333062597464016 5.881794677454452 191 182 165
1.102579931498017 -0.3528527107691625 4.602398826421261 84 60 76
0.13985026988210333 -1.963277077967505 5.785206775051158 139 124 145
-0.47400349816571974 0.4373125418910981 5.762552096742604 67 24 31
0.6789041769831546 -0.32996917023831923 5.0518734933710645 81 60 75
